0.10863806999999999 1.447296 -0.12108446666666665
0.10293453666666667 1.4352159999999998 -0.12289879999999999
0.07716310333333333 1.4352826666666667 -0.1251098
0.059880369999999995 1.4478626666666667 -0.12568046666666666
0.05991727 1.469326 -0.12356079999999998
0.07663593666666667 1.4766226666666666 -0.1209898
0.05766456666666666 1.4945959999999998 -0.1140775
0.07001873333333332 1.5028826666666666 -0.10625253333333333
0.05761343333333333 1.5174126666666663 -0.09647073333333334
0.0415353 1.5261293333333334 -0.09264850333333334
0.10018347000000001 1.4674693333333335 -0.1207878
0.10467506666666666 1.4739926666666667 -0.11742779999999998
0.10369640000000001 1.4866693333333334 -0.11116843333333333
0.09275136666666667 1.4972993333333333 -0.10529746666666667
0.09730796666666668 1.5065693333333334 -0.09181373
0.08618033333333332 1.5156926666666666 -0.08308536333333333
0.06921843333333333 1.5209526666666668 -0.0867873
0.06225326666666667 1.5281226666666665 -0.07828526666666667
0.04708806666666667 1.5324793333333335 -0.08182780333333334
0.0419324 1.537316 -0.07403920333333334
-0.0999783 1.4648393333333332 -0.005443184333333334
-0.10585183333333333 1.4714726666666664 -0.010638440666666667
-0.09545956666666666 1.4876293333333332 -0.01939756
-0.1042464 1.4945026666666665 -0.024940923333333337
-0.0933479 1.5083659999999999 -0.03831586666666667
-0.1042035 1.511436 -0.045884633333333334
-0.09384436666666666 1.5178260000000001 -0.06016016666666666
-0.10490519999999999 1.5174460000000003 -0.06650943333333333
-0.0868702 1.026279 -0.14500880000000002
-0.08211733333333332 1.0229306666666667 -0.14682613333333336
-0.07210593333333333 1.018021 -0.1508054666666667
-0.06703033333333334 1.0126803333333336 -0.14640513333333335
-0.05692836666666667 1.007382 -0.14920413333333335
-0.051754166666666664 1.007349 -0.15645113333333335
-0.04147853333333334 1.0028346666666665 -0.1588708
-0.0319652 1.0188263333333334 -0.15518313333333333
-0.01806568 1.0312396666666668 -0.15169646666666667
-0.0371137 0.9992616333333334 -0.15906546666666666
-0.06500156666666666 1.0091336666666668 -0.13392946666666664
-0.056634800000000006 1.0043496333333335 -0.13710779999999997
-0.05221106666666667 1.0031942999999999 -0.14458546666666666
-0.04312136666666666 0.9981989666666666 -0.1462768
-0.03800826666666666 0.9969853000000001 -0.15275246666666667
-0.03042196666666667 0.9910999666666668 -0.14824046666666665
-0.026719466666666667 0.9906756333333333 -0.15448013333333332
-0.0290696 0.9947723 -0.1603048
-0.025370066666666666 0.9938416333333334 -0.16134579999999998
-0.015839503333333334 1.0098129666666666 -0.15765579999999998
-0.027380233333333334 0.9881533333333333 -0.14217280000000002
-0.030374066666666668 0.9902406666666668 -0.14088446666666668
-0.038528900000000005 0.9944009666666668 -0.14047646666666666
-0.04292363333333334 0.9972589666666667 -0.13895313333333334
-0.05193983333333333 1.0022123 -0.13727579999999998
0.17906133333333332 0.062188183333333334 0.09174930666666668
0.19991033333333333 0.061365333333333334 0.08696517
0.21225533333333332 0.056650596666666664 0.07273047333333334
0.185114 0.05377314 0.06931234333333335
0.20018000000000002 0.05154764666666667 0.04918657666666667
0.16785433333333333 0.05024510000000001 0.046373776666666665
0.19820300000000002 0.048030713333333336 0.01930854933333333
0.16364733333333334 0.047619376666666664 0.020116516
0.192465 0.04813402666666666 -0.0074035506666666655
0.163475 0.04876854333333333 -0.01026615
0.16124333333333332 0.05804952 0.08275304333333335
0.19054833333333332 0.053588873333333335 -0.04011668333333333
0.16349466666666668 0.056778579999999995 -0.04417795
0.17221366666666668 0.059218353333333335 -0.06421582333333332
0.14566133333333334 0.05891970999999999 -0.06691245333333333
0.15612066666666666 0.05566029333333333 -0.07939771999999999
0.14571399999999998 0.052814403333333336 -0.08244968666666666
0.145812 0.04832645 -0.09636049333333334
0.15473766666666666 0.048780290000000004 -0.10620889666666666
0.14634466666666668 0.04804978333333334 -0.12494213333333333
0.15540666666666667 0.04876029666666667 -0.13532913333333332
0.1674173333333333 0.04909426333333333 -0.13720646666666667
0.18028466666666668 0.049260856666666665 -0.13334146666666666
0.188952 0.050697306666666664 -0.1219158
0.19054666666666667 0.05197311333333333 -0.10622216666666667
0.17826166666666668 0.050933203333333336 -0.09703726333333333
0.19359700000000002 0.05628701333333334 -0.08623196
0.18212033333333333 0.05723435666666667 -0.08226689
0.19654433333333332 0.06121428 -0.07664402333333332
-0.046616700000000004 1.020484 -0.13112313333333334
-0.032822833333333336 1.0337746666666667 -0.12767713333333333
-0.023810023333333333 1.0288173333333333 -0.12935613333333332
-0.02858769 1.0105733333333333 -0.13447946666666666
-0.011272243333333334 1.0218216666666666 -0.13128246666666665
-0.017453353333333334 1.0043469999999999 -0.13616413333333333
-0.09510513333333333 1.0622983333333333 -0.09574086666666666
-0.1020767 1.0457530000000002 -0.10230296666666668
-0.09583356666666666 1.0434106666666667 -0.10728396666666666
-0.08263236666666667 1.0575893333333335 -0.10570953333333333
-0.07485753333333332 1.0543726666666666 -0.110929
-0.08028249999999999 1.0369816666666667 -0.11772246666666668
-0.07211516666666667 1.0332803333333334 -0.12204013333333334
-0.058524200000000005 1.046968 -0.11956446666666666
-0.05009296666666666 1.0428343333333334 -0.1229158
-0.0552525 1.0250130000000002 -0.12874280000000002
0.168117 0.05437034666666667 -0.15785446666666667
0.17484333333333332 0.05176983333333333 -0.1519658
0.19114366666666668 0.05528583 -0.15005746666666667
0.19508066666666668 0.05277916 -0.14205646666666666
0.203748 0.05421561 -0.1306308
0.20977733333333334 0.058403583333333335 -0.12348746666666666
0.21031666666666668 0.06023909 -0.10396716333333333
0.21416433333333332 0.06853634 -0.10610849666666666
0.21256233333333333 0.07397069666666667 -0.09682622666666667
0.21215366666666666 0.08757524333333333 -0.10865852999999999
0.205882 0.057326923333333335 -0.09541686333333334
0.2108536666666667 0.06861346 -0.07987712333333333
0.10776036666666666 0.9839573333333332 -0.14140546666666667
-0.127945 1.059867 -0.09019772666666666
-0.12804800000000002 1.0606336666666667 -0.09272896000000001
-0.12722366666666665 1.0608903333333333 -0.09526073
0.12817466666666666 0.060981733333333336 0.00777434
0.12599466666666667 0.06620566 0.031047010000000003
0.12739866666666666 0.06306841 0.040380410000000005
0.13040866666666664 0.06661166333333333 0.05662664333333334
0.1349253333333333 0.07737068000000001 0.05924687666666667
0.13220866666666667 0.08243128333333334 0.04417894333333333
0.13643233333333335 0.09190521666666666 0.038949210000000005
0.13249566666666665 0.09238595333333333 0.018945042666666665
0.128526 0.08397848333333334 0.002410172666666667
0.12654200000000002 0.07587598000000001 0.010460706666666666
0.12628799999999998 0.07480951666666667 0.03222531
0.13474633333333333 0.05693169666666667 0.06329607666666666
0.13168733333333335 0.05911439333333333 0.055296243333333335
0.13023966666666667 0.05201646000000001 0.03918191
0.1282513333333333 0.055175673333333335 0.03045681
0.132669 0.05141310666666667 0.008528816666666666
0.13399633333333333 0.05408191666666667 -0.004820253333333333
0.13590466666666667 0.05726523666666666 -0.02718075333333333
0.13094766666666666 0.07056390666666666 -0.03675739333333333
0.126059 0.08386409666666667 -0.06268902333333333
0.12480566666666666 0.10062826000000001 -0.06255535666666667
0.11346233333333333 1.3883126666666665 0.06680760000000001
0.11178933333333334 1.3962926666666666 0.054772833333333326
0.11333433333333333 1.4019593333333333 0.03915146666666666
0.10765463333333335 1.4162726666666667 0.033392333333333336
0.10812696666666667 1.4254226666666667 0.024664966666666666
0.0992152 1.440806 0.018982433333333333
0.09977723333333333 1.4484393333333332 0.009196433366666666
0.08874556666666666 1.4639226666666667 0.00029502003333333376
0.09194493333333333 1.472876 -0.009246249966666667
0.08244966666666666 1.488986 -0.01863668333333333
0.10279699999999999 1.380886 0.09520053333333334
0.10959866666666666 1.3780593333333335 0.08857686666666668
0.11156833333333334 1.3806193333333334 0.08363170000000002
0.11646366666666667 1.377676 0.07187566666666667
0.11718566666666667 1.3829726666666666 0.0602175
0.11923766666666667 1.385886 0.043015733333333334
0.11705933333333333 1.3968926666666668 0.033984466666666664
0.11909766666666666 1.3972026666666668 0.02028610033333333
0.11886033333333335 1.4037560000000002 0.015655066999999998
0.11462533333333334 1.4178893333333333 0.019262633333333334
0.11910733333333334 1.3673193333333333 0.0664169
0.121744 1.3709493333333331 0.045835533333333324
0.12098833333333332 1.380306 0.0350479
0.12091933333333334 1.3792193333333334 0.0170494
0.121207 1.3851093333333333 0.011318866999999998
0.122051 1.381906 0.0005249903333333331
0.12251800000000002 1.3751559999999998 -0.008779476666666666
0.12324033333333334 1.367986 -0.012153230000000001
0.12819766666666668 1.3588626666666668 -0.027777796666666663
0.13284866666666667 1.3598293333333331 -0.04267256666666667
0.009797460000000001 1.010777 -0.14533580000000001
0.008208789999999999 1.0122163333333332 -0.1468921333333333
0.006118853333333334 1.013644 -0.14772180000000001
-0.11676500000000001 1.0308913333333332 -0.1017673
-0.041541466666666665 1.5261526666666665 -0.09260830333333332
-0.047098799999999996 1.5321259999999999 -0.08178943666666667
-0.041953833333333336 1.5369293333333334 -0.07405663666666668
-0.0310145 1.5421593333333334 -0.07721553666666667
-0.1017594 1.093106 -0.10406983333333332
-0.09759649999999999 1.0915926666666664 -0.1080006
-0.09729593333333332 1.0899293333333333 -0.10925776666666669
-0.11982433333333335 1.0784576666666668 -0.09956949999999999
-0.11516356666666668 1.0771110000000002 -0.10585119999999999
-0.12155056666666668 1.0601136666666668 -0.1136407
-0.13126333333333332 1.044099 -0.1178458
-0.12629033333333334 1.0439256666666665 -0.12139846666666666
-0.12589766666666666 1.0425346666666666 -0.12228246666666666
-0.13112566666666667 1.0623829999999999 -0.10119536666666668
0.16408366666666666 1.0128616666666668 -0.03507424666666666
0.16469799999999998 1.0084293333333332 -0.02432374
0.16656566666666667 1.0020810000000002 -0.003912606666666667
0.167021 0.9998786666666667 0.00645642
0.151811 0.9927983 0.0239432
0.14274333333333333 0.9914332666666666 0.035166133333333335
0.11788399999999999 0.9889162666666668 0.04527016666666667
0.10650193333333331 0.9915219333333334 0.052036066666666665
0.08447473333333333 0.9944429666666667 0.0572528
0.0746333 0.9949173333333334 0.054986733333333336
0.05762253333333334 0.9999656666666668 0.06265503333333333
0.048182633333333336 1.0014093333333334 0.06290156666666667
-0.0936123 1.081806 -0.07089909999999999
-0.1059491 1.081836 -0.057604899999999994
-0.11166376666666666 1.0915426666666666 -0.038514863333333337
-0.11095843333333333 1.1033326666666667 -0.027538573333333333
-0.121458 1.0859226666666666 -0.02415463333333333
-0.154698 1.0227529999999998 0.016122367000000002
-0.16332666666666665 1.0143573333333336 -0.005448899666666666
-0.16228466666666666 1.0224970000000002 -0.014819999666666667
-0.15792666666666666 1.0348863333333334 -0.0019850996666666665
-0.16094766666666668 1.0420433333333332 -0.011575833333333334
-0.15502833333333332 1.0591966666666666 -0.0008298666666666666
-0.16524999999999998 0.125247 -0.1617118
-0.17178833333333332 0.1339617333333333 -0.15942913333333333
-0.16954866666666665 0.1495601 -0.15634080000000003
-0.182481 0.15752773333333334 -0.14931213333333335
-0.18551700000000002 0.1731406666666667 -0.13886146666666668
-0.19239766666666666 0.18124566666666664 -0.12323823333333335
-0.18938533333333332 0.20129596666666663 -0.11898323333333334
-0.191582 0.21194393333333336 -0.11123673333333334
-0.19564233333333333 0.1997713 -0.09761013333333333
-0.19347566666666668 0.2122262666666667 -0.08677553333333334
-0.16211566666666666 0.21239056666666667 -0.14153213333333334
-0.167498 0.20122190000000004 -0.14118246666666667
-0.17727066666666666 0.21307056666666666 -0.13483046666666668
-0.18188000000000001 0.20159259999999998 -0.13058313333333335
-0.17855200000000002 0.18187496666666667 -0.13991613333333333
-0.167775 0.17229263333333333 -0.14969380000000002
-0.16180766666666666 0.1555907 -0.15566780000000002
-0.16133033333333333 0.1801616 -0.1467128
-0.0870633 1.0836893333333333 -0.0974763
-0.09245626666666668 1.0883293333333333 -0.1019504
-0.09148730000000001 1.085376 -0.09310239999999999
-0.09922563333333334 1.0907126666666667 -0.09555853333333332
-0.10011946666666667 1.0874293333333334 -0.08638166666666668
-0.107314 1.0911693333333334 -0.08861126666666667
-0.033363833333333336 0.9918743333333334 -0.14628280000000002
-0.031623566666666665 0.9929599666666666 -0.15435446666666666
-0.0274851 0.9883386 -0.14718346666666668
-0.02331823333333333 0.9882262666666666 -0.15568246666666666
-0.017097133333333334 0.9838929666666667 -0.1492278
-0.013392556666666666 0.9849136333333334 -0.15645413333333333
0.0036090609999999998 1.0423633333333333 -0.14919946666666664
-0.001928772333333333 1.0437513333333333 -0.14878313333333335
-0.002313329 1.0451986666666666 -0.1481118
-0.031466600000000004 0.9967722999999999 -0.16172379999999997
-0.029909033333333335 0.9972736333333333 -0.16184813333333334
-0.025899133333333334 0.9933489666666665 -0.16297779999999998
-0.016488183333333333 1.009503 -0.15861946666666668
-0.003063383333333333 1.0233023333333333 -0.1545018
-0.005763323333333334 1.0042742999999998 -0.15862846666666666
0.006591543333333334 1.0187533 -0.15357479999999998
-0.10792253333333333 1.4717426666666666 -0.12383913333333334
-0.11257653333333333 1.4790226666666666 -0.12059579999999999
-0.11185653333333334 1.4948693333333332 -0.11130796333333333
-0.10110656333333333 1.5039926666666663 -0.10440476333333333
-0.09623856333333332 1.5150593333333333 -0.08921579666666667
-0.10562119999999998 1.516176 -0.08132609666666667
0.214838 1.3085793333333333 -0.06951236666666666
0.18565933333333332 1.340126 -0.06413803333333333
0.16798733333333335 1.357026 -0.07218096666666667
-0.0181224 1.0410306666666667 -0.1443868
-0.04275523333333333 1.0547250000000001 -0.13881946666666667
-0.03293853333333333 1.0495656666666666 -0.14148813333333335
-0.028027133333333332 1.0471173333333332 -0.14364946666666667
-0.0205398 1.0428313333333332 -0.1450758
-0.018805566666666666 1.0404886666666666 -0.14820346666666667
0.18561733333333333 0.9172063000000001 0.04251266666666667
0.187484 0.9173266333333334 0.04070233333333333
0.19005833333333333 0.9172499666666667 0.040323533333333335
0.19235666666666665 0.9170066 0.0415209
0.19350133333333333 0.9166892666666667 0.04383703333333333
0.19305533333333333 0.9164182666666667 0.04638726666666667
0.19118900000000003 0.9162979 0.04819753333333334
0.18861466666666668 0.9163746 0.048576299999999996
0.186316 0.9166179666666666 0.0473789
0.18517133333333335 0.9169353 0.04506286666666667
0.18616966666666668 0.889103 0.037480933333333334
0.1843026666666667 0.8889826333333334 0.03929116666666666
0.18385633333333332 0.8887116333333333 0.0418414
0.185001 0.8883942999999999 0.04415746666666667
0.18729966666666667 0.8881509333333334 0.045354900000000004
0.189874 0.8880746 0.0449762
0.19174033333333332 0.8881939666666666 0.04316593333333333
0.19218633333333335 0.8884636666666665 0.04061563333333334
0.19104166666666667 0.888782 0.038299433333333334
0.18874366666666667 0.8890263333333334 0.037102133333333336
0.18374400000000002 0.9149249333333334 0.05059346666666667
0.1833286666666667 0.9158609666666667 0.048751600000000006
0.18108966666666668 0.9155516333333332 0.046177666666666665
0.18189666666666668 0.9164186666666666 0.04443523333333333
0.18155999999999997 0.9161156333333333 0.041039933333333334
0.1832933333333333 0.9168506333333334 0.04009256666666667
0.184975 0.9164023 0.03714236666666667
0.18698533333333334 0.9169883333333333 0.0373824
0.19003133333333333 0.9162996666666666 0.03597396666666667
0.191563 0.9167796666666667 0.037340099999999994
0.19479666666666665 0.9158486666666666 0.037980933333333335
0.19527666666666668 0.9163059666666666 0.039981666666666665
0.19745066666666666 0.9152216333333335 0.0423967
0.19670833333333335 0.9157466333333334 0.04429826666666666
0.19698000000000002 0.9146576666666667 0.04753463333333333
0.19531166666666666 0.9153163000000001 0.04864093333333333
0.1935646666666667 0.9143709666666666 0.0514321
0.19161966666666666 0.9151769333333334 0.05135103333333333
0.188509 0.9144722666666666 0.05260056666666666
0.1870426666666667 0.9153859333333333 0.05139336666666666
0.18598033333333333 0.8891886000000001 0.0494782
0.18779866666666667 0.8884892333333334 0.0486749
0.19115566666666664 0.8889866 0.0491413
0.19219833333333333 0.8884302666666667 0.04739636666666666
0.195159 0.8891763 0.045843866666666656
0.19501533333333332 0.8887096333333334 0.043793566666666665
0.19646166666666667 0.8896853 0.040845766666666665
0.19517433333333334 0.8892213 0.0392429
0.194566 0.8903209666666667 0.036056
0.19261399999999998 0.8897706666666667 0.0354824
0.19019566666666665 0.8908386333333334 0.03330416666666666
0.18831299999999998 0.8901459666666667 0.03394866666666666
0.18502100000000002 0.8910413 0.033641366666666665
0.18391366666666667 0.8902056666666667 0.035227299999999996
0.18101733333333334 0.8908523 0.03693863333333333
0.181096 0.8899252666666667 0.03882996666666667
0.1797143333333333 0.8903419 0.04193676666666666
0.18093666666666666 0.8894122666666666 0.04338066666666666
0.18160999999999997 0.8897056333333334 0.0467264
0.183497 0.8888633 0.047140900000000006
0.189195 0.8774796666666668 0.0425632
0.15442699999999998 0.17557333333333336 -0.045190829999999994
0.18309833333333334 0.8780709999999999 0.0394306
0.12724633333333332 0.15817056666666668 -0.08505432666666667
0.1829643333333333 0.8783340000000001 0.03702693333333333
0.2156583333333333 0.166095 -0.08390013333333333
0.18702033333333334 0.8772999666666667 0.04493863333333333
0.20759933333333333 0.16687396666666665 -0.07280669666666667
0.18732633333333334 0.9230679333333334 0.03974166666666667
0.18955333333333332 0.9233519666666666 0.03950206666666667
0.17034333333333332 0.9349542999999999 0.018344933333333337
0.17118666666666668 0.9390776000000001 0.0218424
0.17362833333333336 0.9395696 0.022557366666666665
0.174978 0.9413926 0.026542866666666665
0.17764633333333335 0.9411249666666667 0.027490266666666666
0.18073733333333333 0.9408249999999999 0.03346333333333334
0.18446766666666667 0.9390976666666667 0.035604300000000005
0.18324633333333332 0.9382553333333333 0.030928100000000004
0.18590966666666667 0.9358380000000001 0.033108066666666665
0.188752 0.8810566666666665 0.035933233333333335
0.18917533333333333 0.8791346333333333 0.03520346666666666
0.18837666666666666 0.8798419666666667 0.034093366666666666
0.18799333333333332 0.8780532999999999 0.03227953333333333
0.18661933333333333 0.8791823333333334 0.0314218
0.18563833333333335 0.8779146333333333 0.029328066666666666
0.18491233333333335 0.8795826 0.02936743333333333
0.18382066666666666 0.8794159333333332 0.027228699999999998
0.183442 0.8812639666666667 0.0276996
0.18216966666666665 0.8823123333333333 0.025409933333333332
0.1906493333333333 0.8918792999999999 0.04687566666666667
0.192824 0.892059 0.04450023333333333
0.194273 0.9071303333333334 0.04429163333333334
0.19293433333333332 0.8928086666666667 0.03923083333333333
0.192407 0.9079990000000001 0.039304399999999996
0.18953099999999998 0.9082792999999999 0.03769446666666667
0.18731066666666665 0.8933603 0.03608613333333333
0.18520233333333333 0.9082689333333334 0.03900816666666667
0.18364833333333333 0.8933206333333334 0.0382205
0.182368 0.8931829666666667 0.039972099999999997
0.18302366666666667 0.9078776333333334 0.0440525
0.18284166666666668 0.8927113333333333 0.04425423333333334
0.18469500000000003 0.8923979666666667 0.04641283333333333
0.18669166666666667 0.9071163000000001 0.04896656666666666
0.18979899999999997 0.9067379666666667 0.04922686666666667
0.204717 0.15931036666666668 -0.12454286666666665
0.15558633333333333 0.9530646333333334 0.051189533333333335
0.14509466666666668 0.9546829333333333 0.04912360000000001
0.12752033333333335 0.9587826 0.0546302
0.11957 0.9613179666666666 0.06220476666666667
0.203801 0.23148366666666667 -0.08258366
-0.07716286666666668 0.5818542666666666 -0.0591689
-0.07627663333333334 0.6000135999999999 -0.06848296666666666
-0.0649285 0.6464836 -0.049391
-0.060505 0.6794709666666666 -0.061113633333333334
-0.04686456666666666 0.7413333333333334 -0.05781423333333333
-0.03906713333333333 0.7701156333333333 -0.037343803333333335
0.152974 0.23403393333333333 -0.04230116666666667
-0.06063006666666667 0.6748626 -0.01706603333333333
-0.04840913333333333 0.7366322666666667 -0.008318236666666666
-0.05149626666666666 0.7654636 0.01365313
-0.07300866666666665 0.7660665999999999 0.03722546666666667
-0.07536123333333333 0.5955625999999999 -0.03421890666666667
-0.07017656666666668 0.6421009333333333 -0.011208006666666668
-0.08264303333333332 0.6734886000000001 0.014564059999999998
-0.0879149 0.7355495666666666 0.03714543333333333
-0.115577 0.7432235666666668 0.041703
-0.12774233333333332 0.7743869 0.045626400000000004
-0.12108433333333334 0.8233292666666666 0.0548876
-0.10289643333333333 0.8471746333333333 0.05890073333333334
-0.0800172 0.8217456333333333 0.052150833333333334
-0.06675226666666666 0.8455919999999999 0.04918113333333333
-0.04808743333333334 0.8209653 0.02422033
-0.03797916666666667 0.8449519666666667 0.017039263333333332
-0.10507676666666667 0.3482596333333334 -0.08196386666666666
0.20197299999999999 0.33053993333333337 -0.1136908
-0.19867766666666667 0.42862360000000005 -0.06532066666666667
-0.036522533333333336 0.8837562999999999 0.0323681
-0.036419433333333334 0.9387329333333333 0.04734896666666666
-0.017756266666666666 1.544846 -0.08316093666666667
-0.0097977 1.5411460000000001 -0.08669313666666667
-0.023138266666666667 1.5295726666666667 -0.09318030333333334
-0.013340566666666666 1.5230326666666667 -0.09912916666666667
-0.026830133333333336 1.506416 -0.10876446666666667
-0.013489566666666668 1.497986 -0.113216
-0.027557866666666667 1.4788693333333331 -0.12109946666666666
-0.014068299999999999 1.4701759999999997 -0.12226113333333333
-0.014068299999999999 1.4480759999999997 -0.12440079999999999
-0.027547533333333332 1.4353093333333333 -0.12535846666666664
-0.18163333333333334 0.5411456 -0.11398960000000001
-0.189393 0.5445789666666667 -0.0997166
-0.165507 0.5432263 -0.12428046666666666
-0.06557953333333333 1.0700993333333333 -0.09667746666666667
-0.14743766666666666 0.5287365999999999 -0.1337218
-0.07568956666666667 1.072682666666667 -0.0949378
-0.0953527 0.35945833333333327 -0.0874639
-0.05528613333333334 1.0679026666666667 -0.10334213333333332
-0.09285316666666667 0.3659296666666667 -0.106153
-0.0761332 1.0719926666666666 -0.0922034
-0.08802093333333334 0.36836699999999994 -0.07093413333333333
0.20161199999999999 0.36347430000000003 -0.12087293333333334
-0.08751199999999999 0.386571 -0.07685336666666666
0.14573066666666668 0.3598639666666667 -0.023291353333333334
-0.12065033333333335 0.35923166666666667 -0.03116855
-0.023660133333333333 0.8821563000000001 -0.07346826666666666
-0.09713373333333335 0.39417830000000004 -0.0574538
-0.06210916666666667 0.8691578999999999 -0.10701036666666668
-0.09639016666666667 0.41635530000000004 -0.06658750000000001
-0.10373656666666668 0.8663492666666667 -0.11209926666666666
-0.10075756666666667 0.38030763333333334 -0.0423643
-0.08280703333333334 0.8576929 -0.10996106666666666
-0.175017 0.35247433333333333 -0.03236098666666667
-0.014760066666666667 0.8843426333333334 -0.0320251
-0.155767 0.36678163333333336 -0.015135330000000002
-0.14087166666666667 0.8662656333333333 -0.10289873333333333
-0.08152606666666667 0.5504909 -0.06674780000000001
-0.153649 0.8358836333333334 -0.09930613333333334
-0.08212856666666668 0.5608696000000001 -0.07558666666666668
-0.12295333333333335 0.8565166333333334 -0.11076386666666667
-0.18136866666666665 0.5748433 -0.11160483333333333
-0.19153799999999999 0.5725483333333333 -0.0837582
-0.03202873333333333 0.8194236 -0.05240703666666666
-0.02483136666666667 0.8427046333333333 -0.00641207
-0.06493483333333334 1.0728893333333334 -0.1005128
-0.015178867666666667 1.059874 -0.11134316666666666
-0.031273626666666665 1.0655893333333333 -0.1111494
-0.08702576666666667 1.0728226666666667 -0.08713616666666667
-0.09515523333333335 1.078306 -0.08225476666666666
-0.10793566666666667 1.0776459999999999 -0.06622616666666668
-0.112481 1.0850626666666667 -0.061125033333333335
-0.12028866666666667 1.0836326666666667 -0.038143536666666665
-0.12637333333333334 1.0901093333333334 -0.02597648666666667
0.07392493333333333 1.3223393333333333 0.09137786333333332
0.0777678 1.3163726666666666 0.07993646333333333
0.0611525 1.301706 0.08172889666666666
0.0705007 1.2923193333333334 0.07748306666666667
0.46926533333333337 1.1059160000000001 -0.05249953333333333
0.46726 1.1054393333333332 -0.04685176666666666
0.4797896666666666 1.113806 -0.06669693333333333
0.4880706666666666 1.1273593333333334 -0.020921913333333333
0.49145466666666665 1.1286293333333335 -0.024746903333333334
0.23594766666666667 0.056216239999999994 0.03129441
0.03661473333333333 1.6924393333333334 -0.12096613333333334
0.06721476666666666 1.681786 -0.08896689333333334
0.0226716 1.6902793333333335 -0.1267868
0.03236873333333334 1.687066 -0.12292046666666667
0.07024899999999999 1.6891526666666667 -0.08569499333333334
0.0697571 1.6928526666666668 -0.08984202666666667
0.06572983333333333 1.692786 -0.09627746
0.06607033333333333 1.698656 -0.09634819333333333
0.06043573333333333 1.7056726666666666 -0.10135646333333333
0.06218133333333334 1.7135559999999999 -0.09694609333333333
0.0594555 1.7211660000000002 -0.09915926000000001
0.06252293333333334 1.7308393333333332 -0.09383635666666668
0.05770223333333333 1.740136 -0.09546949333333334
0.05826013333333333 1.749016 -0.08827196
0.0754301 1.685746 -0.07183339666666666
0.07591353333333334 1.7015060000000002 -0.07367059333333333
0.07437993333333333 1.7044059999999999 -0.07916206333333332
0.07166466666666667 1.7141659999999999 -0.08286219333333333
0.0692981 1.710026 -0.08833939333333334
0.0700976 1.6987226666666668 -0.08991276
0.07689739999999999 1.724389333333333 -0.07280052999999999
0.07748026666666667 1.7198026666666666 -0.07203049333333333
0.07825850000000001 1.7133260000000001 -0.06772019666666666
0.07766353333333333 1.7037726666666666 -0.06831719333333333
0.07951423333333334 1.6944359999999998 -0.06017633
0.07735193333333333 1.6838259999999998 -0.06300673
0.07453576666666666 1.6758093333333335 -0.06413712999999999
0.07261393333333332 1.6777293333333334 -0.07296379666666665
0.07160236666666665 1.6808293333333335 -0.07661326
0.07288493333333333 1.6917460000000002 -0.08097433
0.05612926666666667 1.6434826666666666 -0.06765119333333335
0.06376173333333333 1.6502993333333336 -0.059205226666666666
0.06798976666666667 1.6610726666666666 -0.06435312666666666
0.07169316666666668 1.6688226666666666 -0.053447996666666664
0.07516736666666667 1.6791793333333331 -0.053494396666666666
0.07923509999999999 1.6947126666666668 -0.04572959666666667
0.0807658 1.7019526666666664 -0.053541929999999995
0.08126480000000001 1.707606 -0.056935860000000005
0.0806082 1.7096426666666666 -0.06297326333333332
0.08120976666666667 1.7139360000000001 -0.05787586
0.07723606666666666 1.6969560000000001 -0.035395409999999995
0.05220946666666667 1.7336293333333332 0.01919814
0.05790646666666666 1.722786 0.014041172
0.0599112 1.7225693333333334 0.007597274000000001
0.06395763333333333 1.7090426666666667 -0.00022868599999999994
0.06791473333333332 1.7042760000000001 -0.010113101333333332
0.0696216 1.687076 -0.018186766666666666
0.07271003333333333 1.6817060000000001 -0.027522709999999995
0.0704548 1.6714626666666668 -0.030440126666666668
0.07000733333333334 1.6690126666666665 -0.03353499333333333
0.06915163333333334 1.6652360000000002 -0.03532199333333333
0.06720403333333334 1.6776193333333334 -0.01570844
0.036263166666666666 1.7624426666666668 0.0009566019999999996
0.03624283333333333 1.753736 0.015760405333333335
0.043126899999999996 1.7466793333333335 0.020326038666666667
0.049834366666666664 1.7427326666666667 0.013425575333333334
0.055684333333333336 1.7353093333333334 0.0056205073333333334
0.0259741 1.7551560000000002 0.027899739999999996
0.02062738 1.7734393333333331 -0.0016431213333333334
0.009315946666666667 1.7709626666666667 0.006340785333333335
0.008298766666666667 1.761666 0.02237174
0.014683000000000002 1.756816 0.031171373333333335
0.014111233333333334 1.749306 0.04458610333333333
0.02684996666666667 1.7437993333333335 0.04452597333333333
0.030414066666666666 1.7461893333333336 0.03870274
0.0402459 1.7388026666666667 0.036385806666666666
0.04269 1.7407126666666668 0.03014844
0.05042696666666666 1.7315693333333335 0.025761406666666667
0.007727 1.746152666666667 0.049980369999999996
0.05245643333333333 1.7569160000000001 -0.08611652666666665
0.05463763333333333 1.7608193333333333 -0.07554922333333333
0.04875563333333333 1.7669193333333333 -0.07390076
0.04983513333333333 1.7703693333333332 -0.06018979666666666
0.036976199999999994 1.7758426666666667 -0.06691579666666667
0.030452733333333332 1.7798660000000002 -0.06189202666666666
0.011716466666666666 1.7829426666666668 -0.07400625666666667
0.0037376866666666664 1.7861159999999998 -0.06586036
0.018078386666666665 1.7831193333333335 -0.042229366666666664
0.011050266666666668 1.782056 -0.02462579133333333
-0.00010930000000000026 1.7798226666666668 -0.08726529
0.0090636 1.776416 -0.09290202333333332
0.02741283333333333 1.7755126666666667 -0.08466676
0.0353399 1.770126 -0.08597822666666666
0.03334346666666666 1.766186 -0.09468329333333332
0.044578 1.759076 -0.09317312999999999
0.04507730000000001 1.753456 -0.09929529999999999
0.05239783333333333 1.7424160000000002 -0.09943623000000001
0.05490419999999999 1.7191893333333332 -0.10596429666666668
0.051772900000000004 1.7261959999999998 -0.10683986333333334
0.04925213333333334 1.7358393333333335 -0.10526029666666668
0.03810026666666667 1.7404393333333334 -0.11132773333333335
0.03644013333333333 1.749886 -0.10703403333333333
-0.0043445390000000006 1.7474826666666665 -0.12171146666666666
0.0057889276666666665 1.7502926666666667 -0.12091346666666665
0.011801126666666667 1.7633226666666666 -0.11032523
0.01924453333333333 1.7631059999999998 -0.10914756333333332
0.026982833333333334 1.764526 -0.10304919666666666
0.02951833333333333 1.755676 -0.11075476666666667
0.029992466666666665 1.749776 -0.11265743333333333
0.02225416666666667 1.748356 -0.11875580000000001
0.019426833333333334 1.747236 -0.1182158
0.010817267666666667 1.744886 -0.12257546666666667
0.021780033333333334 1.754256 -0.11685313333333332
0.007614146666666666 1.7662693333333335 -0.11043989666666666
-0.002309953333333333 1.7668726666666668 -0.10999029666666667
0.0030102199999999996 1.7714360000000002 -0.10448672666666665
0.029753 1.7022793333333333 -0.12412813333333333
0.0206912 1.7014693333333335 -0.12756446666666665
0.014654 1.7033293333333333 -0.13025846666666666
0.006275146666666666 1.7009293333333335 -0.13176046666666666
0.009110546666666665 1.707556 -0.13105613333333332
0.007347693333333333 1.7147693333333336 -0.13022446666666665
0.014666313333333333 1.726496 -0.12614346666666665
0.007906705 1.7316426666666667 -0.12608779999999997
0.006135659333333332 1.7363959999999998 -0.12614579999999997
-0.005015574 1.7378959999999999 -0.1258968
-0.012318008333333333 1.7383693333333332 -0.1229068
-0.016200675 1.7293960000000002 -0.1245748
-0.012254745 1.7199593333333334 -0.12888446666666667
-0.001170165 1.7196193333333334 -0.13083013333333332
-0.0027894100000000004 1.7120726666666666 -0.13238780000000003
-0.007500263333333333 1.7064393333333332 -0.13323113333333333
-0.00019855999999999983 1.7025093333333334 -0.13177213333333335
-0.015215543333333331 1.7106926666666666 -0.13056913333333334
0.022686233333333333 1.679576 -0.12625046666666664
0.019063433333333334 1.6874593333333332 -0.1281638
0.015632666666666666 1.6880860000000002 -0.12870213333333333
0.006729926666666667 1.6943460000000001 -0.1300308
0.0026016920000000005 1.6904693333333334 -0.13020980000000001
-0.007925607999999999 1.6902593333333333 -0.1305288
-0.004887376999999999 1.6782193333333335 -0.12881346666666668
-0.004797461 1.6711726666666664 -0.12653713333333333
0.0057298390000000005 1.6713826666666665 -0.12621813333333332
0.012732281333333333 1.6720226666666667 -0.12391046666666666
0.018788333333333334 1.6791926666666666 -0.12560380000000002
0.021026100000000002 1.6752460000000002 -0.12463413333333333
0.005639922999999999 1.678429333333333 -0.12849446666666667
0.012936648 1.6613293333333334 -0.11984646666666665
0.006028976333333332 1.6552426666666669 -0.11872613333333333
0.004895975546666666 1.627322666666667 -0.09588869666666666
0.005370296 1.637526 -0.10546463333333334
0.005586504999999999 1.6432293333333332 -0.11031066666666667
0.010075761666666667 1.6396993333333334 -0.10828193333333334
0.010953695 1.6457093333333335 -0.11272206666666666
0.023514533333333334 1.6484726666666667 -0.11022973333333332
0.0257838 1.6600359999999998 -0.11523279999999998
0.033891533333333335 1.671452666666667 -0.11637413333333331
0.0287055 1.6757860000000002 -0.1211718
0.030365633333333336 1.680116 -0.12278813333333333
0.022636600000000003 1.6424626666666668 -0.1057896
0.0297838 1.648246 -0.10588423333333334
0.026820400000000005 1.6396293333333334 -0.10048956666666668
0.035000866666666665 1.641336 -0.09738010000000001
0.038619933333333335 1.6366726666666667 -0.08766743333333334
0.046574933333333325 1.6442093333333334 -0.08606853333333335
0.055036400000000006 1.650176 -0.07907286333333334
0.058693166666666664 1.6585026666666665 -0.08289232666666667
0.06401406666666666 1.6625826666666665 -0.07661855666666667
0.06607429999999999 1.6700626666666667 -0.08000562333333333
0.0702212 1.6640993333333334 -0.041677563333333334
0.06489156666666668 1.6482993333333333 -0.03965076
0.06213550000000001 1.6422493333333332 -0.04627329333333333
0.05350826666666667 1.6287993333333333 -0.04748472666666667
0.04943376666666666 1.6304793333333334 -0.06225016333333333
0.04164763333333333 1.6221726666666667 -0.06607866666666666
0.03683516666666667 1.6273093333333335 -0.07892696666666667
0.026877866666666667 1.6191826666666664 -0.07990233000000001
0.020482166666666666 1.6268393333333335 -0.09175226333333335
0.010559556213333335 1.6205426666666665 -0.08820932666666666
0.05431886666666667 1.616386 -0.024816693333333334
0.052389766666666664 1.615266 -0.028686393333333334
0.05538266666666666 1.6223793333333332 -0.03199762666666667
0.050854333333333335 1.6211593333333336 -0.04071179666666667
0.045006333333333336 1.6100226666666666 -0.045379633333333336
0.03987413333333333 1.609356 -0.05598106666666666
0.033673633333333335 1.6051693333333332 -0.06052839666666667
0.025489833333333333 1.6098593333333333 -0.07160136
0.014307449283333334 1.6085326666666664 -0.07642692666666667
0.005772872163333334 1.6115593333333333 -0.08118496
0.04213336666666667 1.5941026666666664 -0.029232663333333336
0.045944533333333336 1.6023393333333333 -0.02979802333333333
0.0470827 1.6078626666666667 -0.03453749666666667
0.04934266666666667 1.659616 0.04843847333333332
0.04766446666666666 1.6588893333333334 0.049542539999999996
0.04504706666666667 1.6572326666666666 0.05256170666666667
0.04289706666666667 1.6564393333333332 0.05387584
0.023487566666666668 1.6552493333333336 0.057521836666666666
0.024632766666666667 1.654912666666667 0.05833376666666667
0.026803066666666667 1.654826 0.05889853666666667
0.02787886666666667 1.6549893333333336 0.05861194
0.030873633333333334 1.6548360000000002 0.058741110000000006
0.0328493 1.654526 0.05895710666666667
0.03668269999999999 1.6549693333333335 0.05751987333333333
0.03917006666666666 1.6551126666666667 0.056797969999999996
0.039503733333333325 1.6547193333333332 0.05707520333333333
0.04368946666666667 1.656046 0.05453947333333333
0.04619956666666667 1.6566826666666667 0.05318501
0.04923536666666667 1.658596 0.050103176666666666
0.051037566666666666 1.6590026666666666 0.04887351
-0.03724536666666667 1.6805259999999997 -0.11696513333333332
-0.031145433333333333 1.678496 -0.12031979999999999
-0.042437166666666665 1.704256 -0.116707
-0.030992699999999998 1.6963193333333333 -0.12336746666666666
-0.027364566666666663 1.6833559999999999 -0.12339813333333333
-0.01995886666666667 1.6744693333333334 -0.12423379999999999
-0.023739733333333332 1.669609333333333 -0.12115546666666666
-0.026566199999999998 1.6641160000000002 -0.11732446666666667
-0.02211036666666667 1.6561393333333332 -0.11608946666666668
-0.030058833333333337 1.7195126666666667 -0.1233458
-0.027447666666666665 1.7220893333333336 -0.12320446666666666
-0.0258877 1.706066 -0.12574313333333334
-0.017601506666666666 1.7041060000000001 -0.12879813333333331
-0.013485040000000002 1.6914793333333333 -0.1300378
-0.017558066666666667 1.6788193333333332 -0.12570879999999998
-0.011908718666666667 1.6705526666666666 -0.12392346666666666
-0.006518457000000001 1.6597193333333333 -0.12032946666666666
-0.011492838333333333 1.6551493333333334 -0.11780146666666667
-0.008793605000000001 1.6444526666666668 -0.1130326
-0.019411133333333334 1.6454426666666666 -0.1113206
-0.018325633333333334 1.6402026666666665 -0.10607736666666667
-0.007708105 1.6392126666666667 -0.10778936666666666
-0.003052161666666666 1.643136 -0.1098899
-0.0032683706666666664 1.6374326666666665 -0.10504386666666665
-0.00374269112 1.6272293333333334 -0.09546792999999999
-0.009631277119999998 1.620436 -0.08780546
-0.005779294503333333 1.611546 -0.08120186
-0.01314368405 1.6086693333333333 -0.07737696
-0.0243072 1.6100126666666668 -0.07253285999999999
-0.03628203333333333 1.6710726666666667 -0.11529446666666666
-0.03475176666666666 1.6650893333333332 -0.11365283333333333
-0.0317209 1.661819333333333 -0.11363283333333334
-0.032739833333333336 1.6547426666666667 -0.1095855
-0.0245543 1.6464593333333333 -0.10681289999999999
-0.023478100000000002 1.6407093333333334 -0.10197119666666665
-0.018847433333333333 1.627826 -0.09268169333333333
-0.0277946 1.629516 -0.08866289333333333
-0.02974 1.620976 -0.07811899666666666
-0.03968926666666667 1.629116 -0.07712663
-0.03524466666666667 1.6496893333333336 -0.1016288
-0.03242526666666667 1.6423993333333335 -0.09795239666666666
-0.051556033333333334 1.643016 -0.07587179
-0.04700413333333334 1.6436326666666667 -0.08340739333333334
-0.0659843 1.6717193333333331 -0.07946932333333333
-0.060286900000000004 1.661916 -0.08243905666666666
-0.056330333333333336 1.6600826666666666 -0.08793936000000001
-0.0495958 1.6514893333333334 -0.08833819666666666
-0.0447673 1.6470593333333332 -0.09062703
-0.0384823 1.6460893333333333 -0.09631979666666667
-0.044005666666666665 1.6536526666666667 -0.09741843
-0.048414033333333335 1.6641959999999998 -0.10034173333333334
-0.0559102 1.666196 -0.09315149666666667
-0.05910053333333334 1.6673859999999998 -0.09275466333333333
-0.042149233333333334 1.665946 -0.10898590000000001
-0.04688230000000001 1.6690159999999998 -0.10507319999999999
-0.051860833333333335 1.6784826666666666 -0.10520313333333332
-0.0565829 1.6748526666666665 -0.10007483333333334
-0.05964136666666667 1.678706 -0.09880206666666667
-0.0581263 1.6904593333333333 -0.10250690000000001
-0.0647747 1.6728693333333335 -0.08677486333333334
-0.06635773333333334 1.6795226666666665 -0.08996493333333333
-0.06729343333333333 1.6933693333333333 -0.09060009666666667
-0.06355879999999998 1.6969993333333333 -0.09692253
-0.059498999999999996 1.7060760000000001 -0.10104619666666668
-0.054066499999999997 1.6995360000000002 -0.10663056666666666
-0.04835723333333333 1.6968059999999998 -0.1118713
-0.0480911 1.6848660000000002 -0.11078650000000001
-0.04464283333333333 1.6813826666666667 -0.11229820000000001
-0.0436795 1.6719293333333336 -0.11062753333333335
-0.07134913333333333 1.7103593333333331 -0.08734646000000001
-0.07262673333333335 1.7106626666666667 -0.08259909333333333
-0.0708995 1.7022259999999998 -0.08387499666666666
-0.0771348 1.7161893333333333 -0.07328292333333335
-0.0772202 1.7135960000000001 -0.07105016
-0.07639543333333333 1.7091293333333333 -0.07035256
-0.07308583333333334 1.7004726666666665 -0.07864873
-0.07479723333333334 1.6962826666666666 -0.07619839333333334
-0.07433813333333333 1.6905193333333333 -0.07596982666666667
-0.06743763333333334 1.6791993333333333 -0.08195519333333333
-0.07810683333333333 1.7049393333333336 -0.06790222333333333
-0.08015506666666666 1.7012026666666669 -0.05623915666666667
-0.08063413333333333 1.7090993333333333 -0.05702295666666666
-0.07963556666666667 1.720006 -0.05594495666666666
-0.07711076666666666 1.7216960000000003 -0.06901242333333334
-0.0735529 1.7235593333333332 -0.07983625999999999
-0.0721863 1.7288326666666667 -0.07882882666666667
-0.06884983333333333 1.7252426666666665 -0.08705626
-0.06704736666666666 1.728866 -0.08789862333333333
-0.04350303333333333 1.7170093333333334 -0.11469966666666666
-0.050177 1.7196493333333336 -0.11035666666666667
-0.05480176666666666 1.7263460000000002 -0.10489599666666667
-0.0565043 1.7201393333333332 -0.10417086333333335
-0.060833500000000006 1.7212193333333332 -0.09752206000000001
-0.06160036666666666 1.7127993333333336 -0.09740479333333334
-0.06802760000000001 1.7158726666666666 -0.09110175999999999
-0.06937363333333334 1.7124426666666668 -0.09115002999999999
-0.07156246666666666 1.7165393333333334 -0.08811196333333333
-0.07353796666666666 1.714456 -0.08430839333333333
-0.05401156666666667 1.7372293333333335 -0.10057736333333334
-0.05829606666666667 1.7329126666666668 -0.09809702666666666
-0.06556669999999999 1.7366659999999998 -0.08684836
-0.06757323333333333 1.7359193333333334 -0.08352475999999999
-0.0698701 1.7407126666666668 -0.06959962666666668
-0.0726807 1.7372493333333334 -0.06574605666666666
-0.0749777 1.7366126666666666 -0.05359109
-0.07816133333333335 1.7258059999999997 -0.05129342333333333
-0.07685180000000001 1.7286926666666667 -0.03604338666666667
-0.06946523333333333 1.7439293333333332 -0.027397473333333335
-0.06931770000000001 1.7460360000000001 -0.03763881
-0.06994786666666666 1.7443826666666666 -0.06897489333333333
-0.06723356666666667 1.741286 -0.08206086
-0.06386656666666667 1.755846 -0.04413757666666666
-0.06450703333333334 1.7540293333333334 -0.06407715666666668
-0.06773893333333333 1.748526 -0.06910862333333334
-0.06638713333333333 1.7474893333333334 -0.08266322666666666
-0.0672353 1.7417793333333336 -0.08675319333333333
-0.0632623 1.7452226666666668 -0.08904819333333334
-0.05913006666666667 1.7483093333333333 -0.08800359
-0.0536608 1.7595926666666666 -0.08368429
-0.05168243333333333 1.755846 -0.08865712666666666
-0.0571517 1.7445626666666667 -0.09297642666666667
-0.05314326666666667 1.7684493333333335 -0.06207549333333332
-0.05632346666666666 1.7622159999999998 -0.07284382333333334
-0.05558236666666666 1.760156 -0.08017028999999999
-0.06241413333333334 1.7509326666666667 -0.08495822666666668
-0.03857993333333334 1.7378093333333335 -0.11294520000000001
-0.044566133333333334 1.7410993333333333 -0.10701240000000001
-0.044261166666666664 1.7526326666666667 -0.09932909666666667
-0.048237333333333327 1.760046 -0.08857476000000002
-0.04435996666666667 1.7721993333333332 -0.07704325666666667
-0.04654643333333333 1.774796 -0.06284329333333333
-0.0376647 1.7806893333333333 -0.05582512666666667
-0.035127266666666664 1.7807960000000003 -0.04593613
-0.04798963333333334 1.7711459999999999 -0.03324405
-0.057123900000000005 1.7646926666666667 -0.04236524666666666
-0.02667093333333333 1.7600593333333332 -0.10536016333333333
-0.03211546666666667 1.7588626666666667 -0.10563196333333331
-0.039536999999999996 1.7560293333333332 -0.10308223
-0.03534606666666667 1.7643393333333333 -0.09853859333333333
-0.03277543333333333 1.7727993333333334 -0.08774272333333333
-0.03866736666666667 1.7753926666666666 -0.07763932333333334
-0.030531200000000005 1.7832226666666664 -0.06696019000000002
-0.0382408 1.7176326666666668 -0.11994913333333333
-0.0385558 1.7261693333333337 -0.11805946666666667
-0.030373833333333336 1.7280493333333335 -0.12145613333333334
-0.03039796666666667 1.7396893333333334 -0.11634186666666668
-0.02428783333333334 1.7441393333333333 -0.11682953333333335
-0.0243439 1.7516593333333335 -0.11320873333333333
-0.01170304 1.755476 -0.11510066666666667
-0.014030073333333332 1.763876 -0.10725209666666667
-0.010583473333333334 1.769516 -0.10282506000000001
-0.0215079 1.776306 -0.09077485666666667
-0.0169107 1.7797826666666667 -0.08607012333333335
-0.014408579999999999 1.7846193333333333 -0.07302236000000001
-0.018291146666666664 1.7861393333333335 -0.06449822666666667
-0.007173 1.7865726666666666 -0.039732651333333334
-0.016875619999999997 1.7837626666666668 -0.032305618
-0.02305705333333333 1.7786726666666663 -0.017864494666666664
-0.04384843333333333 1.771289333333333 -0.022323756666666666
-0.049520433333333336 1.7603226666666665 -0.009336188333333334
-0.06055183333333333 1.7492260000000002 -0.011787475
-0.06593539999999999 1.7359126666666667 -0.012737304999999999
-0.014682899999999999 1.756816 0.03117140666666667
-0.008298733333333334 1.761666 0.022371773333333334
-0.007281553333333334 1.7709626666666667 0.006340818666666667
-0.02037482 1.7728659999999998 -0.002308824666666667
-0.03804496666666667 1.7618693333333333 0.0002909316666666664
-0.03624276666666667 1.753736 0.015760471666666668
-0.04312686666666666 1.7466793333333335 0.020326101666666666
-0.049834366666666664 1.7427326666666667 0.013425671666666666
-0.055684333333333336 1.7353093333333334 0.0056206066666666665
-0.06284353333333333 1.729516 -0.005647376666666666
-0.07102750000000001 1.7120093333333335 -0.013554995
-0.0767865 1.7032726666666667 -0.02726176
-0.0769265 1.6901326666666667 -0.033522776666666664
-0.07287436666666668 1.6816693333333335 -0.027889646666666667
-0.06956846666666668 1.6852159999999998 -0.018144526666666664
-0.06786160000000001 1.7024160000000002 -0.010070891666666667
-0.0639045 1.7071826666666665 -0.00018647333333333323
-0.0599112 1.7225693333333334 0.007597406666666667
-0.05790646666666666 1.722786 0.014041304999999999
-0.05220946666666667 1.7336293333333332 0.01919823666666667
-0.05042696666666666 1.7315693333333335 0.025761503333333335
-0.04268996666666666 1.7407126666666668 0.03014850333333333
-0.0402458 1.7388026666666667 0.03638593666666667
-0.025973966666666664 1.7551560000000002 0.027899773333333332
-0.030413900000000004 1.7461893333333336 0.038702836666666664
-0.026849766666666667 1.7437993333333335 0.04452607
-0.014111100000000001 1.749306 0.04458610333333333
-0.007726933333333334 1.746152666666667 0.049980369999999996
-0.014748199999999998 1.5888593333333334 0.06423914
-0.022295333333333334 1.588116 0.05764981
-0.020614166666666666 1.588356 0.05905407333333334
-0.018172566666666667 1.5878226666666666 0.061229573333333336
-0.0171004 1.589246 0.06223307333333333
-0.0179677 1.5897560000000002 0.06123870666666666
-0.016487933333333333 1.5902993333333333 0.06219950666666666
-0.017725966666666666 1.5903526666666667 0.06106460666666667
-0.0207096 1.5902993333333333 0.058932976666666664
-0.022245 1.5905793333333333 0.057736239999999994
-0.0208409 1.5897426666666667 0.05898374
-0.02234476666666667 1.5902326666666668 0.057812909999999995
-0.0201139 1.5906393333333335 0.058132576666666665
-0.0187085 1.5908026666666668 0.05895730666666666
-0.017044433333333334 1.5907826666666667 0.06072117
-0.014620133333333334 1.5912993333333334 0.061125936666666665
-0.012599766666666666 1.5911993333333332 0.06290287333333333
-0.013786033333333335 1.5906293333333332 0.06363300666666667
-0.012673033333333333 1.5904126666666667 0.06446887666666666
-0.013088933333333335 1.5893993333333334 0.06503720666666667
-0.010524613333333334 1.5893593333333333 0.06635014
-0.00956795 1.588356 0.06721150666666667
-0.00680756 1.5877293333333335 0.06832074333333334
-0.010108713333333333 1.5903726666666664 0.06578181
-0.008648223333333333 1.5907493333333333 0.06594654333333333
